138.139	35.963	-0.406
137.921	35.893	-0.378
138.207	35.864	-0.456
137.701	35.827	-0.368
137.995	35.787	-0.426
137.481	35.762	-0.362
138.282	35.756	-0.489
137.781	35.714	-0.413
137.262	35.695	-0.352
138.076	35.671	-0.452
137.566	35.641	-0.404
138.368	35.63	-0.499
137.047	35.623	-0.329
137.867	35.59	-0.431
137.352	35.568	-0.393
136.833	35.55	-0.293
138.167	35.539	-0.452
137.141	35.49	-0.368
137.657	35.51	-0.417
138.463	35.492	-0.463
136.616	35.481	-0.259
137.962	35.453	-0.416
137.448	35.43	-0.406
136.931	35.411	-0.328
136.401	35.408	-0.231
138.263	35.398	-0.408
137.756	35.368	-0.401
136.72	35.334	-0.292
137.241	35.347	-0.383
138.561	35.348	-0.413
136.209	35.305	-0.202
138.061	35.309	-0.365
137.55	35.284	-0.395
136.511	35.254	-0.266
137.036	35.263	-0.341
138.362	35.254	-0.36
137.858	35.221	-0.359
137.346	35.198	-0.379
138.664	35.197	-0.39
136.034	35.178	-0.171
136.829	35.18	-0.306
136.318	35.153	-0.236
138.162	35.162	-0.315
137.655	35.134	-0.372
137.143	35.111	-0.34
136.624	35.095	-0.286
138.465	35.103	-0.347
137.962	35.071	-0.319
135.855	35.057	-0.143
136.137	35.035	-0.202
137.452	35.046	-0.372
138.772	35.039	-0.401
136.939	35.024	-0.308
136.43	34.996	-0.262
138.266	35.01	-0.302
137.761	34.981	-0.351
137.251	34.957	-0.341
135.668	34.949	-0.119
136.737	34.936	-0.298
138.573	34.946	-0.368
135.954	34.92	-0.17
138.067	34.918	-0.307
137.56	34.891	-0.367
136.243	34.887	-0.232
138.882	34.876	-0.436
137.049	34.868	-0.315
138.373	34.854	-0.331
135.474	34.849	-0.112
136.541	34.839	-0.282
135.766	34.812	-0.14
137.868	34.826	-0.341
137.36	34.801	-0.346
136.056	34.778	-0.198
136.848	34.778	-0.313
138.682	34.785	-0.418
135.281	34.75	-0.134
138.175	34.761	-0.336
136.352	34.734	-0.26
137.669	34.734	-0.357
135.574	34.711	-0.131
137.159	34.711	-0.328
138.992	34.713	-0.458
138.482	34.694	-0.395
135.865	34.676	-0.169
136.653	34.682	-0.306
135.087	34.652	-0.172
137.976	34.669	-0.361
136.162	34.63	-0.234
137.469	34.643	-0.342
136.96	34.62	-0.337
138.792	34.623	-0.465
135.382	34.61	-0.151
138.283	34.602	-0.399
135.672	34.576	-0.162
136.461	34.58	-0.294
137.777	34.577	-0.368
134.891	34.556	-0.213
137.27	34.552	-0.333
135.97	34.53	-0.213
138.592	34.532	-0.465
139.102	34.55	-0.483
135.189	34.511	-0.186
136.764	34.525	-0.34
138.085	34.51	-0.416
135.479	34.477	-0.18
136.27	34.478	-0.276
137.579	34.485	-0.352
134.693	34.464	-0.253
137.071	34.461	-0.354
138.902	34.46	-0.527
135.776	34.432	-0.209
138.393	34.441	-0.476
134.993	34.416	-0.226
136.57	34.426	-0.339
137.887	34.418	-0.42
137.38	34.393	-0.344
134.489	34.38	-0.294
135.286	34.378	-0.207
136.077	34.379	-0.255
139.211	34.386	-0.544
136.875	34.367	-0.368
138.702	34.369	-0.562
135.582	34.333	-0.222
138.195	34.349	-0.495
134.794	34.326	-0.271
136.378	34.326	-0.327
137.689	34.326	-0.405
134.279	34.305	-0.329
137.183	34.301	-0.359
139.012	34.296	-0.634
135.091	34.282	-0.234
135.884	34.281	-0.24
136.681	34.27	-0.377
138.504	34.278	-0.591
137.997	34.257	-0.509
134.065	34.235	-0.338
134.59	34.242	-0.325
135.389	34.236	-0.243
137.491	34.233	-0.386
136.185	34.228	-0.296
136.986	34.207	-0.363
138.812	34.206	-0.705
134.894	34.19	-0.261
135.69	34.184	-0.241
136.487	34.172	-0.375
138.305	34.187	-0.616
133.858	34.155	-0.305
134.383	34.163	-0.383
137.799	34.165	-0.503
135.194	34.14	-0.253
135.991	34.131	-0.256
137.294	34.141	-0.366
136.792	34.111	-0.372
138.614	34.115	-0.753
134.693	34.102	-0.3
138.108	34.095	-0.629
134.175	34.086	-0.42
135.496	34.087	-0.265
136.294	34.075	-0.337
137.602	34.073	-0.473
133.664	34.059	-0.265
134.998	34.047	-0.253
135.797	34.034	-0.239
137.098	34.047	-0.332
134.491	34.018	-0.356
136.598	34.015	-0.387
138.416	34.024	-0.774
133.973	34.001	-0.4
135.301	33.993	-0.281
137.91	34.003	-0.624
136.1	33.978	-0.273
137.406	33.98	-0.415
133.473	33.959	-0.26
134.799	33.957	-0.257
136.903	33.952	-0.329
134.288	33.934	-0.41
135.603	33.939	-0.279
138.218	33.932	-0.769
136.404	33.919	-0.369
137.714	33.911	-0.599
133.779	33.905	-0.359
135.105	33.9	-0.277
135.906	33.882	-0.233
137.21	33.886	-0.335
133.282	33.859	-0.3
134.6	33.869	-0.287
136.709	33.857	-0.37
134.089	33.844	-0.421
135.408	33.844	-0.328
138.021	33.841	-0.752
136.21	33.823	-0.307
137.517	33.818	-0.532
133.589	33.804	-0.348
134.908	33.808	-0.272
137.015	33.792	-0.313
134.401	33.78	-0.344
135.712	33.786	-0.286
133.091	33.759	-0.34
135.213	33.75	-0.351
136.515	33.761	-0.399
133.896	33.748	-0.407
137.825	33.748	-0.734
134.711	33.717	-0.293
136.016	33.727	-0.252
137.321	33.725	-0.432
133.399	33.703	-0.386
135.518	33.691	-0.381
136.82	33.698	-0.375
134.205	33.687	-0.394
132.9	33.661	-0.348
135.018	33.657	-0.36
136.321	33.666	-0.368
137.629	33.656	-0.688
133.705	33.648	-0.411
135.822	33.631	-0.302
137.126	33.631	-0.387
134.514	33.625	-0.352
133.209	33.604	-0.423
134.012	33.591	-0.433
135.323	33.597	-0.448
136.626	33.603	-0.449
136.127	33.571	-0.31
132.707	33.564	-0.356
134.822	33.563	-0.396
137.433	33.563	-0.606
133.515	33.548	-0.447
134.32	33.531	-0.427
135.629	33.536	-0.425
136.932	33.537	-0.442
133.017	33.506	-0.426
133.821	33.492	-0.474
135.129	33.502	-0.469
136.432	33.508	-0.452
135.933	33.475	-0.346
132.515	33.468	-0.396
134.628	33.469	-0.459
137.238	33.47	-0.554
133.324	33.449	-0.476
134.128	33.434	-0.496
135.435	33.441	-0.531
136.738	33.443	-0.526
136.238	33.413	-0.397
132.825	33.409	-0.415
133.631	33.393	-0.517
134.935	33.408	-0.512
134.435	33.374	-0.53
135.74	33.38	-0.468
137.044	33.376	-0.574
132.325	33.368	-0.429
133.133	33.351	-0.474
133.937	33.335	-0.546
135.241	33.346	-0.553
136.544	33.348	-0.544
132.633	33.312	-0.44
134.742	33.313	-0.571
136.045	33.318	-0.418
133.441	33.294	-0.54
134.244	33.276	-0.593
135.547	33.285	-0.585
136.849	33.282	-0.626
132.14	33.262	-0.386
132.942	33.253	-0.455
135.048	33.251	-0.572
136.35	33.253	-0.496
133.747	33.236	-0.585
132.443	33.213	-0.487
134.55	33.216	-0.612
135.852	33.222	-0.52
133.25	33.195	-0.534
134.053	33.178	-0.623
135.354	33.19	-0.596
136.656	33.188	-0.635
132.752	33.155	-0.467
134.856	33.155	-0.606
136.157	33.158	-0.504
131.963	33.146	-0.306
133.557	33.137	-0.606
132.255	33.111	-0.495
134.359	33.119	-0.652
135.659	33.127	-0.622
133.06	33.097	-0.512
135.162	33.094	-0.567
136.463	33.093	-0.596
133.863	33.079	-0.633
132.562	33.056	-0.517
134.665	33.059	-0.616
135.965	33.063	-0.575
133.367	33.039	-0.605
135.467	33.031	-0.62
131.793	33.021	-0.257
134.168	33.021	-0.659
132.072	33.004	-0.467
132.87	32.998	-0.5
134.97	32.997	-0.554
136.27	32.998	-0.595
133.673	32.981	-0.638
132.373	32.956	-0.573
134.474	32.961	-0.634
135.772	32.968	-0.645
133.177	32.94	-0.587
135.275	32.935	-0.562
133.979	32.922	-0.632
132.681	32.899	-0.506
134.779	32.9	-0.55
136.078	32.903	-0.633
131.63	32.888	0.302
131.895	32.889	-0.4
133.484	32.882	-0.643
135.581	32.872	-0.635
132.187	32.853	-0.627
134.284	32.863	-0.627
132.988	32.841	-0.539
135.084	32.838	-0.516
133.789	32.824	-0.608
132.492	32.799	-0.551
134.589	32.803	-0.566
135.886	32.807	-0.668
133.294	32.783	-0.627
135.389	32.775	-0.576
131.724	32.766	-0.327
134.094	32.765	-0.578
131.473	32.747	0.432
132.004	32.746	-0.623
132.799	32.742	-0.476
134.894	32.741	-0.508
133.6	32.725	-0.603
135.695	32.711	-0.653
132.305	32.698	-0.657
134.399	32.705	-0.556
133.106	32.683	-0.554
135.199	32.679	-0.525
133.905	32.666	-0.538
131.559	32.635	0.379
131.826	32.633	-0.507
132.611	32.642	-0.483
134.704	32.644	-0.524
133.411	32.625	-0.587
135.504	32.615	-0.605
131.321	32.6	0.603
132.119	32.595	-0.738
134.21	32.607	-0.51
132.917	32.584	-0.455
135.008	32.582	-0.516
133.716	32.567	-0.532
132.424	32.541	-0.603
134.514	32.546	-0.519
131.654	32.512	-0.398
133.223	32.526	-0.525
135.313	32.518	-0.563
131.401	32.497	0.563
134.021	32.508	-0.484
131.936	32.488	-0.655
132.73	32.484	-0.459
134.819	32.484	-0.528
133.528	32.468	-0.531
132.237	32.439	-0.725
134.325	32.448	-0.495
133.035	32.426	-0.453
135.123	32.421	-0.551
133.832	32.409	-0.505
131.488	32.384	0.499
131.758	32.377	-0.474
132.543	32.383	-0.569
134.629	32.387	-0.532
133.34	32.368	-0.504
132.052	32.336	-0.674
134.136	32.349	-0.509
132.848	32.326	-0.46
133.644	32.31	-0.54
134.934	32.324	-0.559
132.356	32.282	-0.659
134.44	32.289	-0.543
131.584	32.258	0.46
133.152	32.268	-0.46
133.948	32.251	-0.575
131.869	32.23	-0.49
132.661	32.225	-0.51
133.456	32.211	-0.552
134.745	32.226	-0.578
132.17	32.18	-0.583
134.252	32.19	-0.604
132.966	32.168	-0.434
133.76	32.152	-0.66
131.69	32.12	-0.439
132.475	32.124	-0.517
133.269	32.111	-0.522
134.556	32.129	-0.63
134.064	32.092	-0.719
131.986	32.077	-0.406
132.779	32.067	-0.401
133.573	32.052	-0.713
134.368	32.03	-0.739
132.289	32.023	-0.409
133.083	32.01	-0.463
133.876	31.993	-0.85
131.803	31.972	-0.421
132.593	31.966	-0.337
133.386	31.952	-0.704
134.18	31.932	-0.899
132.104	31.921	-0.313
132.896	31.91	-0.389
133.689	31.893	-0.942
132.407	31.865	-0.281
133.199	31.852	-0.646
133.992	31.833	-1.067
131.92	31.818	0.477
132.711	31.809	-0.354
133.502	31.794	-0.961
132.222	31.764	0.395
133.013	31.752	-0.583
133.805	31.734	-1.193
132.525	31.708	-0.44
133.316	31.694	-0.919
132.038	31.662	0.641
132.828	31.651	-0.59
133.619	31.635	-1.242
132.34	31.606	0.633
133.13	31.594	-0.868
132.643	31.55	0.704
133.433	31.535	-1.222
132.156	31.505	0.872
132.945	31.493	-0.875
132.458	31.449	0.892
133.247	31.435	-1.18
132.76	31.392	0.972
132.274	31.347	1.114
133.062	31.335	-1.173
132.575	31.291	1.14
132.877	31.234	1.239
132.391	31.19	1.351
132.692	31.133	1.382
132.508	31.032	1.584
