  135.041596   34.531554  -70.99012853
  135.015601   34.567139  -73.26152959
  134.988934   34.603612  -75.26197875
  134.961950   34.640482  -77.11946834
  134.935051   34.677202  -79.01245620
  134.908641   34.713220  -81.11212538
  136.221836   32.974335   -1.52777342
  136.193629   33.014488   -2.07258176
  136.165449   33.054565   -2.69790755
  136.137290   33.094575   -3.38652840
  136.109145   33.134530   -4.12151656
  136.081003   33.174442   -4.88889523
  136.052865   33.214311   -5.68681416
  136.024742   33.254124   -6.52465911
  135.996645   33.293862   -7.41361984
  135.968588   33.333506   -8.36461591
  135.940588   33.373034   -9.38821510
  135.912659   33.412424  -10.49208795
  135.884804   33.451674  -11.67308282
  135.857011   33.490799  -12.91850418
  135.829267   33.529820  -14.21446311
  135.801555   33.568761  -15.54747961
  135.773856   33.607646  -16.90438317
  135.746157   33.646495  -18.27475279
  135.718462   33.685301  -19.66145896
  135.690800   33.724028  -21.08068103
  135.663200   33.762629  -22.55093160
  135.635698   33.801058  -24.08996924
  135.608330   33.839264  -25.71450512
  135.581133   33.877198  -27.43810228
  135.554114   33.914847  -29.25900498
  135.527244   33.952254  -31.15818895
  135.500480   33.989480  -33.11287837
  135.473776   34.026588  -35.10157430
  135.447084   34.063646  -37.10359667
  135.420357   34.100719  -39.09915855
  135.393584   34.137821  -41.08430993
  135.366829   34.174864  -43.08719890
  135.340199   34.211701  -45.15265335
  135.313807   34.248174  -47.32304311
  135.287773   34.284120  -49.63509545
  135.262217   34.319375  -52.11793047
  135.237233   34.353811  -54.78502801
  135.212768   34.387501  -57.60638704
  135.188621   34.420726  -60.51639732
  135.164559   34.453807  -63.44950913
  135.140349   34.487062  -66.34338608
  135.115759   34.520811  -69.13089406
  135.090549   34.555381  -71.73119062
  135.064536   34.591020  -74.05772173
  135.037809   34.627603  -76.10805961
  135.010734   34.664628  -78.00720691
  134.983721   34.701532  -79.93318168
  134.957184   34.737751  -82.05836115
  136.269944   32.998133   -1.56912074
  136.241757   33.038287   -2.12400048
  136.213598   33.078365   -2.76038803
  136.185463   33.118373   -3.46115807
  136.157341   33.158324   -4.20948718
  136.129225   33.198231   -4.99140916
  136.101113   33.238093   -5.80467643
  136.073016   33.277899   -6.65791096
  136.044945   33.317631   -7.56149052
  136.016914   33.357270   -8.52554265
  135.988937   33.396795   -9.55987356
  135.961028   33.436188  -10.67164362
  135.933190   33.475444  -11.85803740
  135.905412   33.514579  -13.10739174
  135.877682   33.553611  -14.40691077
  135.849983   33.592561  -15.74417011
  135.822301   33.631454  -17.10703344
  135.794621   33.670306  -18.48594280
  135.766949   33.709111  -19.88388389
  135.739312   33.747832  -21.31643897
  135.711739   33.786426  -22.80139458
  135.684265   33.824846  -24.35579217
  135.656924   33.863044  -25.99565402
  135.629753   33.900970  -27.73394326
  135.602757   33.938617  -29.56844696
  135.575906   33.976027  -31.47968959
  135.549155   34.013264  -33.44437383
  135.522455   34.050396  -35.44045816
  135.495758   34.087490  -37.44666844
  135.469015   34.124615  -39.44255034
  135.442214   34.161784  -41.42399604
  135.415424   34.198906  -43.42054164
  135.388756   34.235823  -45.47948707
  135.362330   34.272372  -47.64563779
  135.336271   34.308380  -49.95779424
  135.310706   34.343675  -52.44658773
  135.285732   34.378123  -55.12608912
  135.261298   34.411798  -57.96561497
  135.237194   34.444989  -60.89843418
  135.213183   34.478026  -63.85839705
  135.189028   34.511232  -66.78299970
  135.164491   34.544935  -69.60513579
  135.139325   34.579472  -72.24396847
  135.113332   34.615111  -74.61289245
  135.086590   34.651743  -76.70706665
  135.059465   34.688866  -78.64693572
  135.032378   34.725900  -80.60704637
  135.005755   34.762266  -82.75794925
  136.318080   33.021910   -1.60512014
  136.289913   33.062067   -2.16833740
  136.261775   33.102146   -2.81395065
  136.233661   33.142154   -3.52505259
  136.205562   33.182103   -4.28504191
  136.177470   33.222006   -5.08005703
  136.149384   33.261863   -5.90744184
  136.121313   33.301663   -6.77494254
  136.093267   33.341389   -7.69199580
  136.065260   33.381025   -8.66781098
  136.037304   33.420551   -9.71131016
  136.009413   33.459948  -10.82904231
  135.981589   33.499215  -12.01852402
  135.953823   33.538364  -13.26921617
  135.926103   33.577411  -14.56952388
  135.898416   33.616377  -15.90818297
  135.870746   33.655281  -17.27419337
  135.843083   33.694141  -18.65895081
  135.815431   33.732948  -20.06555698
  135.787816   33.771667  -21.50888826
  135.760267   33.810258  -23.00586843
  135.732818   33.848673  -24.57269156
  135.705501   33.886868  -26.22456977
  135.678351   33.924794  -27.97375942
  135.651373   33.962446  -29.81754821
  135.624534   33.999869  -31.73606345
  135.597788   34.037128  -33.70556934
  135.571085   34.074293  -35.70354187
  135.544375   34.111434  -37.70815267
  135.517609   34.148620  -39.69831176
  135.490775   34.185864  -41.66988558
  135.463945   34.223069  -43.65388292
  135.437237   34.260071  -45.69997309
  135.410774   34.296700  -47.85526070
  135.384687   34.332775  -50.16049490
  135.359108   34.368117  -52.64770023
  135.334137   34.402587  -55.33128238
  135.309722   34.436262  -58.17962444
  135.285650   34.469436  -61.12500587
  135.261678   34.502444  -64.10100787
  135.237569   34.535614  -67.04528103
  135.213077   34.569280  -69.89118679
  135.187952   34.603788  -72.55852685
  135.161989   34.639413  -74.96053636
  135.135264   34.676053  -77.08987219
  135.108137   34.713207  -79.06253195
  135.081028   34.750300  -81.04876270
  135.054360   34.786756  -83.21639731
  136.366245   33.045666   -1.63547730
  136.338096   33.085828   -2.20521396
  136.309977   33.125911   -2.85810869
  136.281884   33.165920   -3.57758429
  136.253807   33.205869   -4.34737015
  136.225738   33.245769   -5.15379780
  136.197677   33.285622   -5.99380133
  136.169630   33.325418   -6.87416235
  136.141609   33.365140   -7.80327233
  136.113624   33.404774   -8.78932063
  136.085689   33.444302   -9.84024578
  136.057814   33.483708  -10.96189892
  136.030001   33.522989  -12.15211530
  136.002244   33.562156  -13.40154453
  135.974531   33.601223  -14.69987266
  135.946851   33.640209  -16.03707255
  135.919191   33.679130  -17.40335302
  135.891541   33.718001  -18.79112972
  135.863906   33.756814  -20.20362282
  135.836311   33.795536  -21.65491939
  135.808784   33.834126  -23.16097476
  135.781356   33.872542  -24.73703915
  135.754059   33.910738  -26.39742979
  135.726925   33.948672  -28.15361609
  135.699959   33.986336  -30.00235801
  135.673126   34.023780  -31.92345546
  135.646379   34.061070  -33.89284200
  135.619667   34.098277  -35.88761056
  135.592939   34.135471  -37.88547777
  135.566146   34.172723  -39.86483036
  135.539278   34.210045  -41.82153896
  135.512408   34.247335  -43.78786431
  135.485657   34.284425  -45.81547183
  135.459155   34.321137  -47.95343151
  135.433034   34.357286  -50.24419932
  135.407432   34.392687  -52.72107780
  135.382452   34.427198  -55.39887954
  135.358038   34.460897  -58.24515556
  135.333978   34.494080  -61.19125531
  135.310028   34.527083  -64.17053928
  135.285949   34.560237  -67.12077937
  135.261496   34.593876  -69.97577444
  135.236418   34.628346  -72.65612549
  135.210509   34.663926  -75.07667229
  135.183837   34.700520  -77.23078900
  135.156753   34.737645  -79.23108645
  135.129671   34.774731  -81.24165759
  135.103009   34.811207  -83.42481068
  136.414439   33.069402   -1.65989974
  136.386307   33.109571   -2.23425742
  136.358206   33.149658   -2.89238591
  136.330132   33.189671   -3.61814171
  136.302075   33.229621   -4.39568492
  136.274029   33.269521   -5.21162234
  136.245990   33.309372   -6.06248446
  136.217968   33.349164   -6.95402104
  136.189970   33.388885   -7.89349828
  136.162006   33.428519   -8.88800685
  136.134089   33.468052   -9.94442387
  136.106227   33.507470  -11.06783275
  136.078424   33.546768  -12.25637029
  136.050672   33.585957  -13.50191642
  136.022964   33.625049  -14.79549353
  135.995288   33.664059  -16.12836643
  135.967635   33.703001  -17.49200672
  135.939995   33.741887  -18.87989710
  135.912375   33.780710  -20.29537149
  135.884798   33.819437  -21.75165906
  135.857289   33.858031  -23.26366216
  135.829879   33.896451  -24.84560679
  135.802599   33.934655  -26.51083961
  135.775477   33.972601  -28.26997153
  135.748518   34.010285  -30.11920621
  135.721685   34.047758  -32.03806307
  135.694931   34.085087  -34.00221721
  135.668205   34.122343  -35.98843386
  135.641455   34.159598  -37.97401722
  135.614631   34.196921  -39.93688611
  135.587725   34.234324  -41.87306362
  135.560814   34.271701  -43.81608776
  135.534020   34.308879  -45.81942291
  135.507476   34.345678  -47.93390242
  135.481318   34.381907  -50.20353409
  135.455686   34.417377  -52.66279938
  135.430686   34.451942  -55.32653641
  135.406261   34.485682  -58.16127313
  135.382199   34.518893  -61.09773388
  135.358257   34.551911  -64.06931426
  135.334198   34.585062  -67.01415546
  135.309781   34.618678  -69.86690077
  135.284755   34.653104  -72.54973004
  135.258914   34.688617  -74.98030281
  135.232323   34.725129  -77.15219933
  135.205321   34.762170  -79.17281627
  135.178306   34.799193  -81.19907314
  135.151682   34.835647  -83.38733599
  136.462661   33.093118   -1.67809324
  136.434545   33.133294   -2.25508936
  136.406461   33.173388   -2.91629563
  136.378404   33.213407   -3.64609721
  136.350367   33.253362   -4.42917619
  136.322341   33.293263   -5.25249159
  136.294324   33.333114   -6.11218588
  136.266324   33.372905   -7.01293211
  136.238347   33.412625   -7.96081521
  136.210404   33.452263   -8.96177197
  136.182502   33.491804  -10.02156276
  136.154652   33.531235  -11.14444895
  136.126856   33.570555  -12.32884453
  136.099107   33.609770  -13.56787576
  136.071400   33.648890  -14.85392929
  136.043727   33.687927  -16.17958948
  136.016077   33.726894  -17.53761556
  135.988446   33.765800  -18.92258007
  135.960838   33.804635  -20.33792763
  135.933275   33.843372  -21.79598720
  135.905783   33.881973  -23.31055587
  135.878389   33.920402  -24.89479071
  135.851121   33.958617  -26.56103087
  135.824008   33.996581  -28.31899133
  135.797051   34.034291  -30.16431034
  135.770214   34.071799  -32.07629117
  135.743449   34.109172  -34.03045250
  135.716705   34.146482  -36.00333201
  135.689931   34.183800  -37.97192779
  135.663077   34.221195  -39.91380446
  135.636136   34.258676  -41.82515647
  135.609186   34.296135  -43.74055900
  135.582353   34.333397  -45.71485323
  135.555770   34.370278  -47.80022774
  135.529575   34.406586  -50.04193058
  135.503911   34.442129  -52.47545290
  135.478882   34.476759  -55.11591712
  135.454433   34.510559  -57.92906936
  135.430353   34.543821  -60.84503912
  135.406402   34.576876  -63.79736898
  135.382348   34.610046  -66.72455856
  135.357954   34.643657  -69.56199278
  135.332974   34.678046  -72.23324299
  135.307212   34.713478  -74.65877886
  135.280732   34.749865  -76.83522691
  135.253856   34.786762  -78.86765402
  135.226962   34.823650  -80.90508808
  135.200435   34.859999  -83.09567749
  136.510912   33.116813   -1.68976426
  136.482811   33.156999   -2.26733352
  136.454742   33.197102   -2.92935528
  136.426701   33.237129   -3.66083052
  136.398681   33.277090   -4.44704666
  136.370673   33.316995   -5.27538592
  136.342677   33.356848   -6.14162499
  136.314698   33.396641   -7.04933562
  136.286741   33.436364   -8.00338840
  136.258815   33.476007   -9.00853317
  136.230929   33.515558  -10.06937896
  136.203088   33.555007  -11.18932768
  136.175296   33.594350  -12.36704434
  136.147549   33.633594  -13.59689550
  136.119841   33.672746  -14.87263506
  136.092167   33.711814  -16.18817208
  136.064519   33.750809  -17.53755885
  136.036893   33.789737  -18.91646080
  136.009295   33.828589  -20.32842039
  135.981745   33.867338  -21.78483514
  135.954267   33.905950  -23.29836240
  135.926885   33.944391  -24.88105753
  135.899627   33.982623  -26.54421954
  135.872519   34.020609  -28.29663084
  135.845560   34.058351  -30.13335569
  135.818716   34.095900  -32.03353057
  135.791936   34.133322  -33.97258750
  135.765172   34.170690  -35.92689725
  135.738371   34.208074  -37.87320883
  135.711486   34.245541  -39.78882397
  135.684511   34.283099  -41.67024927
  135.657525   34.320637  -43.55301110
  135.630654   34.357980  -45.49300026
  135.604031   34.394945  -47.54346892
  135.577795   34.431339  -49.75070107
  135.552090   34.466966  -52.15110137
  135.527020   34.501680  -54.75960885
  135.502532   34.535560  -57.54111923
  135.478418   34.568895  -60.42567220
  135.454446   34.602005  -63.34717755
  135.430389   34.635204  -66.24472986
  135.406019   34.668808  -69.05489942
  135.381098   34.703141  -71.70363201
  135.355438   34.738461  -74.11650976
  135.329095   34.774688  -76.29218102
  135.302375   34.811400  -78.32985002
  135.275629   34.848113  -80.36948751
  135.249217   34.884332  -82.55100443
  136.559191   33.140488   -1.69461849
  136.531104   33.180685   -2.27061104
  136.503049   33.220800   -2.93107684
  136.475022   33.260837   -3.66171147
  136.447017   33.300807   -4.44848283
  136.419027   33.340719   -5.27926241
  136.391049   33.380577   -6.14949248
  136.363088   33.420374   -7.06164051
  136.335150   33.460102   -8.01935301
  136.307240   33.499753   -9.02618253
  136.279366   33.539317  -10.08557442
  136.251533   33.578786  -11.20005034
  136.223743   33.618156  -12.36849473
  136.195995   33.657432  -13.58648385
  136.168285   33.696618  -14.84911448
  136.140608   33.735720  -16.15159795
  136.112960   33.774746  -17.48925615
  136.085338   33.813699  -18.85882623
  136.057748   33.852571  -20.26393819
  136.030208   33.891335  -21.71505472
  136.002741   33.929961  -23.22369252
  135.975370   33.968418  -24.80080935
  135.948119   34.006669  -26.45667211
  135.921014   34.044681  -28.19913529
  135.894051   34.082458  -30.02270651
  135.867196   34.120050  -31.90642433
  135.840401   34.157524  -33.82573779
  135.813616   34.194950  -35.75695926
  135.786791   34.232397  -37.67670961
  135.759879   34.269931  -39.56214772
  135.732876   34.307557  -41.41008491
  135.705862   34.345163  -43.25671167
  135.678963   34.382576  -45.15848125
  135.652308   34.419613  -47.16921273
  135.626038   34.456083  -49.33582055
  135.600294   34.491790  -51.69536650
  135.575182   34.526590  -54.26300098
  135.550647   34.560561  -57.00316551
  135.526487   34.593985  -59.84588140
  135.502479   34.627170  -62.72564805
  135.478405   34.660419  -65.58222711
  135.454044   34.694036  -68.35329212
  135.429170   34.728331  -70.96677501
  135.403612   34.763538  -73.35205099
  135.377431   34.799570  -75.51210299
  135.350907   34.836041  -77.54417691
  135.324363   34.872505  -79.57932587
  135.298132   34.908505  -81.74763044
  136.607499   33.164143   -1.69236109
  136.579425   33.204352   -2.26454119
  136.551382   33.244481   -2.92096942
  136.523367   33.284532   -3.64810732
  136.495376   33.324513   -4.43267116
  136.467400   33.364435   -5.26308226
  136.439439   33.404301   -6.13448607
  136.411495   33.444104   -7.04826222
  136.383573   33.483841   -8.00684540
  136.355677   33.523502   -9.01260189
  136.327813   33.563082  -10.06782143
  136.299986   33.602574  -11.17414209
  136.272198   33.641973  -12.33063552
  136.244447   33.681283  -13.53403535
  136.216733   33.720505  -14.78073090
  136.189052   33.759644  -16.06718935
  136.161403   33.798702  -17.38995750
  136.133782   33.837683  -18.74680218
  136.106198   33.876577  -20.14141995
  136.078667   33.915359  -21.58334488
  136.051209   33.954003  -23.08296773
  136.023846   33.992478  -24.65016237
  135.996601   34.030752  -26.29417348
  135.969495   34.068794  -28.02192771
  135.942526   34.106609  -29.82739505
  135.915660   34.144247  -31.68957823
  135.888848   34.181774  -33.58401993
  135.862042   34.219257  -35.48705047
  135.835195   34.256765  -37.37524557
  135.808260   34.294361  -39.22575523
  135.781234   34.332047  -41.03579051
  135.754198   34.369714  -42.84195482
  135.727272   34.407192  -44.70078020
  135.700587   34.444301  -46.66624854
  135.674277   34.480854  -48.78562800
  135.648485   34.516655  -51.09651708
  135.623315   34.551563  -53.61379913
  135.598716   34.585649  -56.30158116
  135.574494   34.619184  -59.09056811
  135.550440   34.652459  -61.91608883
  135.526344   34.685763  -64.71887063
  135.502000   34.719382  -67.43825223
  135.477196   34.753607  -70.00540695
  135.451769   34.788660  -72.35636988
  135.425774   34.824464  -74.49677322
  135.399468   34.860664  -76.51724603
  135.373141   34.896858  -78.53877013
  135.347096   34.932632  -80.68185159
  136.655836   33.187776   -1.68269755
  136.627773   33.228001   -2.24874411
  136.599741   33.268145   -2.89854236
  136.571737   33.308212   -3.61938294
  136.543756   33.348209   -4.39879049
  136.515794   33.388144   -5.22579219
  136.487846   33.428020   -6.09528342
  136.459917   33.467834   -7.00759353
  136.432008   33.507582   -7.96398052
  136.404125   33.547257   -8.96565795
  136.376270   33.586856  -10.01379028
  136.348447   33.626372  -11.10914627
  136.320658   33.665802  -12.25094862
  136.292905   33.705147  -13.43701178
  136.265185   33.744407  -14.66493955
  136.237500   33.783583  -15.93238039
  136.209847   33.822676  -17.23703212
  136.182227   33.861687  -18.57762553
  136.154648   33.900605  -19.95790723
  136.127124   33.939408  -21.38651881
  136.099673   33.978071  -22.87277490
  136.072317   34.016566  -24.42551748
  136.045076   34.054864  -26.05302128
  136.017970   34.092937  -27.76133328
  135.990995   34.130791  -29.54393702
  135.964117   34.168474  -31.37988224
  135.937290   34.206051  -33.24491746
  135.910468   34.243587  -35.11551381
  135.883604   34.281148  -36.96834178
  135.856653   34.318795  -38.78066948
  135.829615   34.356527  -40.55006195
  135.802569   34.394238  -42.31318455
  135.775632   34.431760  -44.12609201
  135.748930   34.468922  -46.04234285
  135.722594   34.505539  -48.10904292
  135.696765   34.541421  -50.36394959
  135.671541   34.576430  -52.82211634
  135.646875   34.610635  -55.44784703
  135.622586   34.644289  -58.17270934
  135.598475   34.677668  -60.93322401
  135.574346   34.711044  -63.67126961
  135.550004   34.744685  -66.32782185
  135.525253   34.778863  -68.83675193
  135.499954   34.813768  -71.13871165
  135.474163   34.849318  -73.24387966
  135.448110   34.885197  -75.24051181
  135.422053   34.921050  -77.24021461
  135.396259   34.956506  -79.35302844
  136.704201   33.211390   -1.66533150
  136.676149   33.251631   -2.22283385
  136.648125   33.291793   -2.86329461
  136.620130   33.331879   -3.57488959
  136.592159   33.371894   -4.34600507
  136.564206   33.411845   -5.16632508
  136.536271   33.451736   -6.03054800
  136.508354   33.491563   -6.93800960
  136.480457   33.531325   -7.88884789
  136.452583   33.571018   -8.88317829
  136.424735   33.610637   -9.92109091
  136.396915   33.650180  -11.00251756
  136.369126   33.689643  -12.12679516
  136.341368   33.729024  -13.29271997
  136.313644   33.768323  -14.49900462
  136.285953   33.807536  -15.74437796
  136.258297   33.846665  -17.02759090
  136.230677   33.885706  -18.34825001
  136.203100   33.924650  -19.71012563
  136.175582   33.963475  -21.12101308
  136.148138   34.002160  -22.58921554
  136.120787   34.040677  -24.12260391
  136.093549   34.079001  -25.72853699
  136.066442   34.117106  -27.41222319
  136.039461   34.154998  -29.16671467
  136.012572   34.192725  -30.97119253
  135.985733   34.230349  -32.80170389
  135.958898   34.267932  -34.63496200
  135.932023   34.305538  -36.44784960
  135.905065   34.343224  -38.21792615
  135.878025   34.380990  -39.94311244
  135.850977   34.418732  -41.65967570
  135.824034   34.456292  -43.42254212
  135.797316   34.493505  -45.28431017
  135.770950   34.530194  -47.29154278
  135.745069   34.566174  -49.48196921
  135.719775   34.601308  -51.87041920
  135.695026   34.635655  -54.42176520
  135.670654   34.669450  -57.06931915
  135.646478   34.702945  -59.75112969
  135.622316   34.736392  -62.41066761
  135.597991   34.770036  -64.99129777
  135.573325   34.804123  -67.43113718
  135.548186   34.838833  -69.67819098
  135.522623   34.874098  -71.74476913
  135.496837   34.909637  -73.71175337
  135.471053   34.945141  -75.68038714
  135.445507   34.980286  -77.75064825
  136.752595   33.234982   -1.63997000
  136.724552   33.275242   -2.18643176
  136.696536   33.315425   -2.81473539
  136.668548   33.355532   -3.51398954
  136.640583   33.395568   -4.27348768
  136.612639   33.435539   -5.08361753
  136.584713   33.475448   -5.93894297
  136.556805   33.515292   -6.83788415
  136.528918   33.555072   -7.77953860
  136.501052   33.594784   -8.76300089
  136.473210   33.634427   -9.78736065
  136.445392   33.673997  -10.85176351
  136.417601   33.713494  -11.95562027
  136.389839   33.752912  -13.09858560
  136.362109   33.792248  -14.28034690
  136.334414   33.831500  -15.50058374
  136.306754   33.870664  -16.75897268
  136.279134   33.909736  -18.05588522
  136.251560   33.948706  -19.39509629
  136.224047   33.987555  -20.78363401
  136.196609   34.026261  -22.22889152
  136.169264   34.064801  -23.73786943
  136.142029   34.103150  -25.31710867
  136.114922   34.141284  -26.97107422
  136.087937   34.179212  -28.69247848
  136.061042   34.216978  -30.46073811
  136.034196   34.254641  -32.25232416
  136.007356   34.292261  -34.04433141
  135.980479   34.329898  -35.81401238
  135.953525   34.367608  -37.53934712
  135.926497   34.405387  -39.21852470
  135.899464   34.443137  -40.88700288
  135.872534   34.480709  -42.59796980
  135.845820   34.517946  -44.40240610
  135.819442   34.554680  -46.34570444
  135.793529   34.590734  -48.46503211
  135.768177   34.625975  -50.77532784
  135.743349   34.660459  -53.24262071
  135.718896   34.694393  -55.80230552
  135.694650   34.728011  -58.39448345
  135.670448   34.761539  -60.96453035
  135.646128   34.795202  -63.45822388
  135.621529   34.829223  -65.81723267
  135.596543   34.863749  -67.99474883
  135.571220   34.898709  -70.00690188
  135.545731   34.933867  -71.93126760
  135.520267   34.968959  -73.85976271
  135.495031   35.003707  -75.88206095
  136.801019   33.258554   -1.60651315
  136.772983   33.298834   -2.13942054
  136.744973   33.339040   -2.75271605
  136.716990   33.379171   -3.43648178
  136.689030   33.419232   -4.18095736
  136.661092   33.459226   -4.97727620
  136.633172   33.499156   -5.81993499
  136.605272   33.539021   -6.70653184
  136.577392   33.578822   -7.63522127
  136.549532   33.618557   -8.60417183
  136.521693   33.658226   -9.61156417
  136.493876   33.697826  -10.65582436
  136.466083   33.737357  -11.73639726
  136.438317   33.776811  -12.85365494
  136.410581   33.816186  -14.00810354
  136.382880   33.855476  -15.20022214
  136.355217   33.894676  -16.43046573
  136.327595   33.933782  -17.69984294
  136.300023   33.972780  -19.01210915
  136.272513   34.011655  -20.37361402
  136.245079   34.050386  -21.79095413
  136.217737   34.088951  -23.27036761
  136.190504   34.127328  -24.81767720
  136.163396   34.165494  -26.43668723
  136.136406   34.203457  -28.11985640
  136.109506   34.241261  -29.84693938
  136.082654   34.278961  -31.59493922
  136.055812   34.316614  -33.34145331
  136.028939   34.354275  -35.06424471
  136.001997   34.391998  -36.74190578
  135.974988   34.429781  -38.37281859
  135.947976   34.467532  -39.99103100
  135.921060   34.505113  -41.64723513
  135.894345   34.542380  -43.39015459
  135.867945   34.579174  -45.26352430
  135.841981   34.615327  -47.30366133
  135.816548   34.650710  -49.52527142
  135.791619   34.685361  -51.89606164
  135.767063   34.719464  -54.35452259
  135.742734   34.753223  -56.84331779
  135.718486   34.786840  -59.31035145
  135.694178   34.820513  -61.70472359
  135.669666   34.854440  -63.97331595
  135.644849   34.888758  -66.07670850
  135.619765   34.923415  -68.03223593
  135.594560   34.958210  -69.90979763
  135.569394   34.992920  -71.79138615
  135.544435   35.027313  -73.75691882
  136.849471   33.282105   -1.56542155
  136.821442   33.322406   -2.08246399
  136.793437   33.362637   -2.67812560
  136.765457   33.402795   -3.34349306
  136.737500   33.442883   -4.06978290
  136.709565   33.482904   -4.84891057
  136.681649   33.522859   -5.67537431
  136.653754   33.562750   -6.54605090
  136.625877   33.602576   -7.45825707
  136.598021   33.642338   -8.40933830
  136.570183   33.682035   -9.39666662
  136.542365   33.721669  -10.41802346
  136.514568   33.761236  -11.47285144
  136.486796   33.800730  -12.56209806
  136.459054   33.840145  -13.68693041
  136.431346   33.879476  -14.84847393
  136.403676   33.918717  -16.04781297
  136.376049   33.957859  -17.28646852
  136.348473   33.996893  -18.56816756
  136.320961   34.035802  -19.89869066
  136.293526   34.074566  -21.28397221
  136.266181   34.113165  -22.72962087
  136.238944   34.151578  -24.24087111
  136.211828   34.189784  -25.82098458
  136.184828   34.227792  -27.46225332
  136.157916   34.265642  -29.14485713
  136.131054   34.303386  -30.84644162
  136.104205   34.341077  -32.54522186
  136.077332   34.378769  -34.21959009
  136.050397   34.416511  -35.84884685
  136.023404   34.454300  -37.43162530
  135.996413   34.492052  -39.00040318
  135.969513   34.529641  -40.60294223
  135.942802   34.566932  -42.28518537
  135.916385   34.603779  -44.08864406
  135.890377   34.640021  -46.04819902
  135.864865   34.675541  -48.17815413
  135.839829   34.710368  -50.44789012
  135.815156   34.744659  -52.79926060
  135.790720   34.778593  -55.17814814
  135.766393   34.812347  -57.53534471
  135.742047   34.846098  -59.82318574
  135.717557   34.880020  -61.99268640
  135.692844   34.914221  -64.01019214
  135.667947   34.948648  -65.89695226
  135.642983   34.983136  -67.71964843
  135.618084   35.017504  -69.55196514
  135.593394   35.051554  -71.46469559
  136.897953   33.305634   -1.51755414
  136.869930   33.345959   -2.01676924
  136.841929   33.386215   -2.59256618
  136.813951   33.426402   -3.23705828
  136.785995   33.466520   -3.94246144
  136.758061   33.506570   -4.70150146
  136.730147   33.546555   -5.50874046
  136.702253   33.586474   -6.36043089
  136.674378   33.626330   -7.25315419
  136.646522   33.666122   -8.18353300
  136.618683   33.705852   -9.14822835
  136.590862   33.745522  -10.14445140
  136.563059   33.785127  -11.17161100
  136.535280   33.824663  -12.23109586
  136.507529   33.864122  -13.32458335
  136.479811   33.903498  -14.45369904
  136.452131   33.942783  -15.62001488
  136.424495   33.981970  -16.82544449
  136.396911   34.021047  -18.07366961
  136.369390   34.059998  -19.36999210
  136.341945   34.098806  -20.71979634
  136.314590   34.137450  -22.12816909
  136.287339   34.175912  -23.59985757
  136.260207   34.214172  -25.13765733
  136.233187   34.252238  -26.73376298
  136.206253   34.290147  -28.36886747
  136.179372   34.327948  -30.02135447
  136.152507   34.365692  -31.67015841
  136.125624   34.403427  -33.29441273
  136.098688   34.441200  -34.87430199
  136.071701   34.479010  -36.40868217
  136.044717   34.516782  -37.92796988
  136.017816   34.554401  -39.47635948
  135.991086   34.591747  -41.09646402
  135.964624   34.628685  -42.82711521
  135.938536   34.665068  -44.70140456
  135.912907   34.700779  -46.73273724
  135.887725   34.735836  -48.89260859
  135.862897   34.770368  -51.12732935
  135.838318   34.804526  -53.38665106
  135.813880   34.838461  -55.62498246
  135.789471   34.872324  -57.79879671
  135.764984   34.906268  -59.86492985
  135.740344   34.940394  -61.79767351
  135.715579   34.974663  -63.61993022
  135.690788   35.008938  -65.39145558
  135.666079   35.043070  -67.17731876
  135.641573   35.076894  -69.03974382
  136.946464   33.329143   -1.46381470
  136.918447   33.369490   -1.94361455
  136.890449   33.409774   -2.49774058
  136.862472   33.449991   -3.11934337
  136.834516   33.490141   -3.80165031
  136.806581   33.530223   -4.53821754
  136.778667   33.570239   -5.32372889
  136.750773   33.610191   -6.15390727
  136.722898   33.650078   -7.02469935
  136.695040   33.689904   -7.93210325
  136.667198   33.729670   -8.87216530
  136.639371   33.769379   -9.84160019
  136.611561   33.809026  -10.83975516
  136.583773   33.848606  -11.86833515
  136.556011   33.888112  -12.92938759
  136.528280   33.927536  -14.02490219
  136.500587   33.966871  -15.15680694
  136.472937   34.006108  -16.32729913
  136.445339   34.045236  -17.54000562
  136.417803   34.084238  -18.79983980
  136.390342   34.123099  -20.11174688
  136.362968   34.161801  -21.48040155
  136.335696   34.200323  -22.91017135
  136.308538   34.238649  -24.40348571
  136.281489   34.276785  -25.95252291
  136.254525   34.314768  -27.53857206
  136.227614   34.352641  -29.14085100
  136.200722   34.390451  -30.73910514
  136.173818   34.428244  -32.31329310
  136.146869   34.466065  -33.84453235
  136.119877   34.503912  -35.33197453
  136.092890   34.541716  -36.80395322
  136.065981   34.579377  -38.30086943
  136.039228   34.616784  -39.86169455
  136.012720   34.653815  -41.52218390
  135.986555   34.690333  -43.31315703
  135.960809   34.726234  -45.24677198
  135.935475   34.761530  -47.29630932
  135.910480   34.796323  -49.41267167
  135.885734   34.830739  -51.55013180
  135.861148   34.864904  -53.66711887
  135.836625   34.898950  -55.72421976
  135.812072   34.933011  -57.68290429
  135.787432   34.967161  -59.52406357
  135.762734   35.001364  -61.27469465
  135.738055   35.035510  -62.99116515
  135.713483   35.069478  -64.73125828
  135.689120   35.103129  -66.54938602
  136.995004   33.352629   -1.40510237
  136.966993   33.393001   -1.86426384
  136.938998   33.433312   -2.39532756
  136.911021   33.473560   -2.99248220
  136.883065   33.513743   -3.64996935
  136.855129   33.553859   -4.36218670
  136.827213   33.593909   -5.12399086
  136.799316   33.633895   -5.93066624
  136.771438   33.673818   -6.77762206
  136.743577   33.713680   -7.66032716
  136.715730   33.753485   -8.57430631
  136.687896   33.793234   -9.51584928
  136.660077   33.832926  -10.48421633
  136.632278   33.872553  -11.48131026
  136.604503   33.912108  -12.50941526
  136.576758   33.951585  -13.57075523
  136.549048   33.990974  -14.66748818
  136.521380   34.030268  -15.80198899
  136.493762   34.069454  -16.97781056
  136.466205   34.108517  -18.19954608
  136.438720   34.147443  -19.47178662
  136.411318   34.186214  -20.79887600
  136.384015   34.224811  -22.18487844
  136.356821   34.263217  -23.63191490
  136.329732   34.301440  -25.13221912
  136.302725   34.339512  -26.66777412
  136.275771   34.377474  -28.21872618
  136.248840   34.415369  -29.76572964
  136.221902   34.453240  -31.28967268
  136.194927   34.491128  -32.77276540
  136.167914   34.529033  -34.21431810
  136.140906   34.566896  -35.64002968
  136.113965   34.604630  -37.08594852
  136.087162   34.642136  -38.58691456
  136.060575   34.679305  -40.17515509
  136.034293   34.716015  -41.87876116
  136.008387   34.752167  -43.70840109
  135.982859   34.787759  -45.64006188
  135.957655   34.822870  -47.63051652
  135.932705   34.857595  -49.63932517
  135.907938   34.892037  -51.62979262
  135.883272   34.926307  -53.56760175
  135.858627   34.960520  -55.42094667
  135.833950   34.994746  -57.17847713
  135.809262   35.028960  -58.86785822
  135.784623   35.063074  -60.53862056
  135.760107   35.096990  -62.24087181
  135.735797   35.130591  -64.02151554
  137.043575   33.376094   -1.34232253
  137.015569   33.416490   -1.78000111
  136.987577   33.456829   -2.28704125
  136.959600   33.497108   -2.85865842
  136.931643   33.537324   -3.49009982
  136.903704   33.577475   -4.17660665
  136.875786   33.617561   -4.91325487
  136.847886   33.657583   -5.69497955
  136.820004   33.697543   -6.51674826
  136.792137   33.737445   -7.37359438
  136.764283   33.777291   -8.26061324
  136.736441   33.817083   -9.17374030
  136.708612   33.856821  -10.11212630
  136.680800   33.896497  -11.07776229
  136.653010   33.936105  -12.07304642
  136.625248   33.975637  -13.10031735
  136.597519   34.015085  -14.16184769
  136.569829   34.054441  -15.26009484
  136.542187   34.093692  -16.39852495
  136.514602   34.132826  -17.58147806
  136.487086   34.171826  -18.81327388
  136.459649   34.210677  -20.09800790
  136.432306   34.249360  -21.43952239
  136.405066   34.287861  -22.83971086
  136.377927   34.326185  -24.29094408
  136.350867   34.364362  -25.77598480
  136.323859   34.402429  -27.27599378
  136.296876   34.440427  -28.77260993
  136.269890   34.478395  -30.24771213
  136.242873   34.516370  -31.68461556
  136.215824   34.554355  -33.08281942
  136.188781   34.592297  -34.46541054
  136.161797   34.630120  -35.86401586
  136.134934   34.667738  -37.30922065
  136.108263   34.705055  -38.82951098
  136.081862   34.741958  -40.44994103
  136.055795   34.778362  -42.17929084
  136.030068   34.814260  -43.99579828
  136.004642   34.849705  -45.86215923
  135.979466   34.884770  -47.74373569
  135.954483   34.919537  -49.60905268
  135.929625   34.954099  -51.42887313
  135.904824   34.988553  -53.17679249
  135.880040   35.022952  -54.84847001
  135.855293   35.057271  -56.47439987
  135.830629   35.091445  -58.09955731
  135.806106   35.125394  -59.76735022
  135.781798   35.159017  -61.51779949
  137.092175   33.399537   -1.27637541
  137.064175   33.439956   -1.69209428
  137.036186   33.480323   -2.17456878
  137.008210   33.520633   -2.72001965
  136.980251   33.560883   -3.32468088
  136.952310   33.601069   -3.98462964
  136.924388   33.641192   -4.69520115
  136.896484   33.681252   -5.45106686
  136.868597   33.721251   -6.24684563
  136.840723   33.761193   -7.07722642
  136.812862   33.801082   -7.93696441
  136.785011   33.840920   -8.82170863
  136.757170   33.880705   -9.73047887
  136.729344   33.920432  -10.66525055
  136.701538   33.960095  -11.62841925
  136.673756   33.999685  -12.62232407
  136.646005   34.039197  -13.64924064
  136.618290   34.078619  -14.71161500
  136.590618   34.117943  -15.81280337
  136.563000   34.157155  -16.95693657
  136.535446   34.196239  -18.14811830
  136.507967   34.235182  -19.39024835
  136.480574   34.273964  -20.68699633
  136.453279   34.312574  -22.04006916
  136.426078   34.351015  -23.44205508
  136.398953   34.389314  -24.87660754
  136.371878   34.427505  -26.32599807
  136.344830   34.465624  -27.77294997
  136.317781   34.503709  -29.20043761
  136.290707   34.541794  -30.59300835
  136.263605   34.579883  -31.95005912
  136.236506   34.617932  -33.29143685
  136.209455   34.655879  -34.64386506
  136.182504   34.693650  -36.03322577
  136.155713   34.731161  -37.48379892
  136.129153   34.768315  -39.01706117
  136.102881   34.805032  -40.64025394
  136.076912   34.841294  -42.33546506
  136.051224   34.877130  -44.07266624
  136.025785   34.912588  -45.82388975
  136.000551   34.947729  -47.56381704
  135.975469   34.982627  -49.26929039
  135.950480   35.017367  -50.92155833
  135.925547   35.051997  -52.52239873
  135.900683   35.086501  -54.10045078
  135.875923   35.120831  -55.69374211
  135.851314   35.154922  -57.33865493
  135.826918   35.188689  -59.06852026
  137.140805   33.422958   -1.20816797
  137.112812   33.463400   -1.60183297
  137.084826   33.503794   -2.05963572
  137.056851   33.544134   -2.57876821
  137.028891   33.584417   -3.15642030
  137.000948   33.624639   -3.78948761
  136.973022   33.664799   -4.47359956
  136.945113   33.704897   -5.20324789
  136.917220   33.744937   -5.97279420
  136.889340   33.784921   -6.77667271
  136.861470   33.824854   -7.60938668
  136.833608   33.864737   -8.46636555
  136.805755   33.904572   -9.34647956
  136.777915   33.944352  -10.25159358
  136.750091   33.984071  -11.18399492
  136.722289   34.023722  -12.14591980
  136.694513   34.063299  -13.13954670
  136.666769   34.102794  -14.16722762
  136.639065   34.142195  -15.23219059
  136.611409   34.181491  -16.33839830
  136.583812   34.220668  -17.48979060
  136.556283   34.259711  -18.69012429
  136.528835   34.298604  -19.94294911
  136.501476   34.337333  -21.24984764
  136.474205   34.375903  -22.60370945
  136.447004   34.414339  -23.98916820
  136.419851   34.452669  -25.38968428
  136.392725   34.490928  -26.78913015
  136.365600   34.529149  -28.17162254
  136.338454   34.567365  -29.52292432
  136.311283   34.605579  -30.84230214
  136.284113   34.643757  -32.14640261
  136.256981   34.681847  -33.45711040
  136.229930   34.719787  -34.79564753
  136.203012   34.757505  -36.18205578
  136.176288   34.794915  -37.63411643
  136.149809   34.831950  -39.15717529
  136.123593   34.868584  -40.73672226
  136.097632   34.904827  -42.34998148
  136.071908   34.940707  -43.97593565
  136.046391   34.976268  -45.59561976
  136.021038   35.011568  -47.19189387
  135.995801   35.046676  -48.75234068
  135.970654   35.081626  -50.28464648
  135.945607   35.116408  -51.81739559
  135.920684   35.150988  -53.38289101
  135.895924   35.185310  -55.01118552
  135.871381   35.219302  -56.72937310
  137.189466   33.446356   -1.13860163
  137.161479   33.486820   -1.51048962
  137.133497   33.527240   -1.94393868
  137.105524   33.567611   -2.43706745
  137.077564   33.607926   -2.98797999
  137.049618   33.648183   -3.59436271
  137.021689   33.688380   -4.25216744
  136.993776   33.728517   -4.95578665
  136.965876   33.768598   -5.69941330
  136.937988   33.808624   -6.47731383
  136.910110   33.848601   -7.28382513
  136.882237   33.888532   -8.11422093
  136.854372   33.928416   -8.96720416
  136.826516   33.968249   -9.84443996
  136.798675   34.008025  -10.74800807
  136.770850   34.047739  -11.67994355
  136.743049   34.087385  -12.64223070
  136.715275   34.126954  -13.63704508
  136.687535   34.166437  -14.66745678
  136.659838   34.205823  -15.73727686
  136.632192   34.245099  -16.85030441
  136.604608   34.284251  -18.01017444
  136.577097   34.323263  -19.22033577
  136.549667   34.362124  -20.48227344
  136.522317   34.400837  -21.78926980
  136.495030   34.439422  -23.12706121
  136.467789   34.477908  -24.48039715
  136.440573   34.516323  -25.83440484
  136.413360   34.554698  -27.17445443
  136.386128   34.593064  -28.48758803
  136.358873   34.631426  -29.77249745
  136.331614   34.669759  -31.04197980
  136.304378   34.708022  -32.31269759
  136.277201   34.746166  -33.60080770
  136.250126   34.784133  -34.92163720
  136.223203   34.821852  -36.28881350
  136.196477   34.859258  -37.70698610
  136.169976   34.896317  -39.16723085
  136.143705   34.933019  -40.65524941
  136.117660   34.969373  -42.15789373
  136.091825   35.005401  -43.66349719
  136.066167   35.041150  -45.16193170
  136.040648   35.076674  -46.64829415
  136.015243   35.112007  -48.13292593
  135.989956   35.147145  -49.63957917
  135.964804   35.182064  -51.19375237
  135.939820   35.216720  -52.81898758
  135.915048   35.251051  -54.53633021
  137.238156   33.469733   -1.06858451
  137.210177   33.510218   -1.41935810
  137.182201   33.550663   -1.82921213
  137.154230   33.591061   -2.29713482
  137.126270   33.631409   -2.82209019
  137.098323   33.671700   -3.40251720
  137.070391   33.711933   -4.03471277
  137.042473   33.752108   -4.71304837
  137.014568   33.792229   -5.43163514
  136.986673   33.832298   -6.18465715
  136.958785   33.872319   -6.96636907
  136.930903   33.912297   -7.77195174
  136.903025   33.952230   -8.59992650
  136.875154   33.992116   -9.45167920
  136.847294   34.031950  -10.32899403
  136.819448   34.071727  -11.23361833
  136.791620   34.111441  -12.16725764
  136.763815   34.151087  -13.13183981
  136.736038   34.190654  -14.13025023
  136.708297   34.230133  -15.16616016
  136.680601   34.269512  -16.24324658
  136.652959   34.308778  -17.36504262
  136.625381   34.347916  -18.53491707
  136.597875   34.386915  -19.75430075
  136.570439   34.425778  -21.01695316
  136.543061   34.464523  -22.30980289
  136.515724   34.503175  -23.61895876
  136.488409   34.541759  -24.93085939
  136.461097   34.580304  -26.23216629
  136.433768   34.618836  -27.51115924
  136.406417   34.657362  -28.76589286
  136.379056   34.695867  -30.00540304
  136.351706   34.734319  -31.24133262
  136.324395   34.772682  -32.48497565
  136.297155   34.810908  -33.74709323
  136.270028   34.848939  -35.03720874
  136.243056   34.886719  -36.35900667
  136.216266   34.924208  -37.70871783
  136.189677   34.961381  -39.08032675
  136.163295   34.998231  -40.46853202
  136.137113   35.034768  -41.86895367
  136.111109   35.071023  -43.27827988
  136.085256   35.107036  -44.69816699
  136.059535   35.142832  -46.14163957
  136.033948   35.178410  -47.62882551
  136.008507   35.213753  -49.17912652
  135.983238   35.248824  -50.81007217
  135.958182   35.283570  -52.53697992
  137.286877   33.493086   -0.99901917
  137.258907   33.533592   -1.32971493
  137.230936   33.574060   -1.71716112
  137.202969   33.614486   -2.16114773
  137.175010   33.654863   -2.66143343
  137.147063   33.695187   -3.21716098
  137.119129   33.735455   -3.82498807
  137.091207   33.775668   -4.47933982
  137.063297   33.815829   -5.17432933
  137.035395   33.855939   -5.90414084
  137.007500   33.896004   -6.66302811
  136.979607   33.936027   -7.44613914
  136.951718   33.976009   -8.25180065
  136.923834   34.015947   -9.08104611
  136.895956   34.055837   -9.93528332
  136.868089   34.095676  -10.81589097
  136.840236   34.135459  -11.72421491
  136.812399   34.175180  -12.66186404
  136.784585   34.214832  -13.63149966
  136.756800   34.254405  -14.63663908
  136.729052   34.293888  -15.68082538
  136.701350   34.333270  -16.76747644
  136.673703   34.372538  -17.89986556
  136.646117   34.411680  -19.07938408
  136.618593   34.450700  -20.30036825
  136.591118   34.489613  -21.55106487
  136.563679   34.528439  -22.81904543
  136.536259   34.567201  -24.09217131
  136.508841   34.605925  -25.35851422
  136.481407   34.644634  -26.60756161
  136.453950   34.683339  -27.83620470
  136.426477   34.722032  -29.04917374
  136.398999   34.760693  -30.25284910
  136.371536   34.799298  -31.45334121
  136.344111   34.837812  -32.65640345
  136.316757   34.876190  -33.86741364
  136.289511   34.914381  -35.09107204
  136.262407   34.952336  -36.33102214
  136.235473   34.990018  -37.59043476
  136.208726   35.027404  -38.87270484
  136.182169   35.064490  -40.18158615
  136.155793   35.101289  -41.52138807
  136.129576   35.137832  -42.89862393
  136.103505   35.174139  -44.32441418
  136.077574   35.210216  -45.81247472
  136.051794   35.246053  -47.37573465
  136.026184   35.281620  -49.02572754
  136.000777   35.316874  -50.77231150
  137.335629   33.516417   -0.93081427
  137.307667   33.556942   -1.24285607
  137.279703   33.597432   -1.60952494
  137.251742   33.637883   -2.03133244
  137.223786   33.678289   -2.50875395
  137.195839   33.718644   -3.04157639
  137.167904   33.758946   -3.62682769
  137.139980   33.799195   -4.25905847
  137.112065   33.839393   -4.93246531
  137.084158   33.879543   -5.64131297
  137.056256   33.919650   -6.37993375
  137.028356   33.959717   -7.14350167
  137.000456   33.999745   -7.93014023
  136.972560   34.039732   -8.74046785
  136.944667   34.079677   -9.57544699
  136.916781   34.119575  -10.43601929
  136.888904   34.159423  -11.32310330
  136.861038   34.199217  -12.23792864
  136.833189   34.238951  -13.18289395
  136.805362   34.278615  -14.16134179
  136.777565   34.318201  -15.17666390
  136.749804   34.357697  -16.23214689
  136.722088   34.397093  -17.33095423
  136.694425   34.436377  -18.47445969
  136.666812   34.475553  -19.65765361
  136.639240   34.514633  -20.87018155
  136.611698   34.553636  -22.10113665
  136.584171   34.592579  -23.33984960
  136.556645   34.631486  -24.57583115
  136.529103   34.670378  -25.79972352
  136.501537   34.709267  -27.00723555
  136.473947   34.748152  -28.19901255
  136.446339   34.787026  -29.37654268
  136.418723   34.825875  -30.54113505
  136.391116   34.864674  -31.69388837
  136.363540   34.903393  -32.83620510
  136.336028   34.941984  -33.97350724
  136.308618   34.980396  -35.11624985
  136.281343   35.018582  -36.27625045
  136.254227   35.056510  -37.46519288
  136.227282   35.094163  -38.69466437
  136.200509   35.131541  -39.97622621
  136.173899   35.168656  -41.32086364
  136.147441   35.205525  -42.73800277
  136.121131   35.242154  -44.23566221
  136.094975   35.278534  -45.82090728
  136.068990   35.314645  -47.49968487
  136.043200   35.350451  -49.27668762
  137.384410   33.539725   -0.86487326
  137.356459   33.580268   -1.16006121
  137.328503   33.620779   -1.50801497
  137.300548   33.661253   -1.90987679
  137.272596   33.701686   -2.36674963
  137.244652   33.742070   -2.87899413
  137.216717   33.782403   -3.44401079
  137.188792   33.822686   -4.05654363
  137.160875   33.862920   -4.71095074
  137.132965   33.903107   -5.40165461
  137.105058   33.943253   -6.12314236
  137.077151   33.983361   -6.87067033
  137.049244   34.023432   -7.64215229
  137.021338   34.063465   -8.43773664
  136.993434   34.103459   -9.25787973
  136.965532   34.143411  -10.10302468
  136.937635   34.183320  -10.97360037
  136.909744   34.223181  -11.87039713
  136.881864   34.262991  -12.79549888
  136.854000   34.302741  -13.75202603
  136.826157   34.342423  -14.74317041
  136.798343   34.382027  -15.77203676
  136.770563   34.421544  -16.84162589
  136.742825   34.460966  -17.95329320
  136.715128   34.500293  -19.10277954
  136.687463   34.539536  -20.28124568
  136.659821   34.578710  -21.47940532
  136.632191   34.617830  -22.68816887
  136.604559   34.656916  -23.89860652
  136.576912   34.695986  -25.10240107
  136.549240   34.735056  -26.29362911
  136.521536   34.774132  -27.46858312
  136.493799   34.813217  -28.62382743
  136.466032   34.852308  -29.75573273
  136.438241   34.891395  -30.86046069
  136.410440   34.930457  -31.93608279
  136.382661   34.969452  -32.99090576
  136.354944   35.008323  -34.04370637
  136.327326   35.047018  -35.11537956
  136.299838   35.085493  -36.22643572
  136.272502   35.123718  -37.39682475
  136.245334   35.161673  -38.64474880
  136.218331   35.199361  -39.98172005
  136.191487   35.236793  -41.41183567
  136.164795   35.273977  -42.93679671
  136.138257   35.310910  -44.55782305
  136.111885   35.347581  -46.27557727
  136.085692   35.383967  -48.09020893
  137.433223   33.563011   -0.80210465
  137.405282   33.603570   -1.08262608
  137.377336   33.644100   -1.41437061
  137.349388   33.684596   -1.79900825
  137.321442   33.725052   -2.23816802
  137.293502   33.765463   -2.73270278
  137.265570   33.805825   -3.28038100
  137.237646   33.846139   -3.87620447
  137.209729   33.886405   -4.51476780
  137.181817   33.926627   -5.19072545
  137.153908   33.966809   -5.89879274
  137.125998   34.006953   -6.63436321
  137.098088   34.047062   -7.39513973
  137.070176   34.087135   -8.18075670
  137.042264   34.127171   -8.99111587
  137.014352   34.167171   -9.82611344
  136.986441   34.207132  -10.68564023
  136.958532   34.247052  -11.56999777
  136.930628   34.286927  -12.48090200
  136.902734   34.326752  -13.42119562
  136.874854   34.366518  -14.39381543
  136.846995   34.406218  -15.40163048
  136.819161   34.445844  -16.44742713
  136.791359   34.485389  -17.53253543
